# .PCD v0.7 - Point Cloud Data file format
VERSION 0.7
FIELDS x y z intensity
SIZE 4 4 4 4
TYPE F F F F
COUNT 1 1 1 1
WIDTH 1434
HEIGHT 1
VIEWPOINT 0 0 0 1 0 0 0
POINTS 1434
DATA ascii
39.823654 37.451214 1.7270656 36.666668
39.679268 37.676868 1.7188636 30
38.984913 38.099812 1.726388 62
38.925377 38.123264 1.7849035 75
39.041454 38.162514 1.7712746 60
39.019382 38.743568 1.7619573 3
3.3285208 -29.67902 1.86457 19
6.3592296 -26.162075 1.8643692 16
12.353154 -25.462986 1.8853605 33
15.925671 -24.904089 1.827577 41
-2.5528173 -24.003769 1.8689278 7
1.9873171 -22.911192 1.8854281 17
1.9941802 -22.81019 1.872481 28
2.5518222 -22.759762 1.8791509 49.5
15.484009 -21.935926 1.8582475 42
10.561844 -21.814728 1.8534465 14
10.431143 -21.790642 1.8170798 18
15.268112 -21.6619 1.8274233 43
5.4743452 -20.257524 1.8471652 2
-1.6916184 -18.707952 1.8289906 36
14.993208 -18.021942 1.8390195 7
-24.238592 -17.955769 1.844734 49.5
14.783891 -17.674944 1.8575394 12
14.750498 -17.429905 1.815649 6
-18.943115 -17.302244 1.8274245 37
-18.922104 -17.240427 1.8937361 54.5
-19.026823 -17.178434 1.8215073 66
-17.977636 -17.172316 1.8902452 29
-18.937458 -16.927551 1.8913555 32
-18.203554 -16.938635 1.831938 62
-18.577587 -16.891842 1.8366631 66
-18.064606 -16.83762 1.851801 27.333334
-10.503667 -16.21979 1.8775862 42
-10.567985 -16.146107 1.8278072 51
5.0080924 -16.117643 1.8984872 4
-10.983358 -16.043463 1.8577696 10.5
-9.7364378 -16.067547 1.8123085 58
-10.003088 -15.962223 1.8401244 26
-9.9815502 -15.88645 1.832888 52.5
-9.8251534 -15.886076 1.8691864 38
-9.0783825 -15.844912 1.8792899 23
-8.9620476 -15.836031 1.8556372 17
14.731277 -15.897081 1.8010375 22
-2.2154465 -15.581321 1.8654581 6
-4.3081284 -15.401953 1.8793316 26
-4.2682381 -15.490202 1.816126 39
-4.171917 -15.419157 1.8675559 18
-1.3845091 -15.487028 1.8758087 11
-1.2878706 -15.44536 1.8571656 17
-4.2367749 -15.34094 1.8535371 50
-4.1668715 -15.350202 1.8398899 43.666668
0.9351244 -15.072927 1.8604523 19
1.5810394 -15.059292 1.8099113 4
-1.3413324 -14.96398 1.8769116 7
1.5710585 -14.96279 1.8807445 15
4.8282838 -14.911733 1.880888 3
-2.3199272 -14.860624 1.8480083 5
-2.2523129 -14.803555 1.8403705 22
-2.1995437 -14.837963 1.8432958 32
-2.2177703 -14.797777 1.8139696 45
-2.1483159 -14.777508 1.8841407 49
-1.421293 -14.73361 1.8988594 48
-1.5187323 -14.675779 1.8416667 53
-1.426662 -14.681173 1.8475509 18
0.88586712 -14.518352 1.8498615 26.333334
0.93442917 -14.526499 1.8222678 51
1.2158413 -14.491766 1.8773893 49
1.4117222 -14.421781 1.8239418 30
1.4424591 -14.347748 1.8392402 2
9.2471771 -13.930832 1.8552878 18
9.8718309 -13.944021 1.8941363 4
9.9447308 -13.865587 1.8470522 2
14.421498 -13.556155 1.8447003 38
9.1621952 -13.461882 1.8588408 12
9.2477798 -13.439364 1.8420649 30.333334
9.4350462 -13.414819 1.8840828 60
9.6314163 -13.401349 1.824149 53
9.7510691 -13.449839 1.8630267 8
9.8079329 -13.404061 1.854754 30
14.207211 -13.446693 1.8046535 60
9.5001736 -13.362674 1.8135866 24
9.6209011 -13.356852 1.843424 18
9.7801247 -13.340188 1.8784736 30
9.8081331 -13.376668 1.8594407 28
14.202539 -13.194767 1.8053578 53
4.5982771 -13.061841 1.8600445 4
4.4678717 -12.770209 1.8888863 22
4.5632687 -12.721334 1.882431 2
14.17334 -12.796049 1.8627713 38
4.5174913 -12.541243 1.8730682 2
4.4685988 -12.339064 1.8845954 11
-14.87064 -11.732456 1.8281403 10.5
-25.1593 -11.644983 1.8768885 22
4.4228058 -11.691493 1.8796965 6
14.104598 -11.205443 1.801591 15
4.390976 -11.144985 1.8645316 2
4.2737541 -11.004345 1.8389546 3
4.26653 -10.917474 1.8474423 14
4.1934385 -10.829245 1.887109 2
4.3025522 -10.811621 1.8948814 6
4.2089109 -10.380444 1.810623 2
-15.018599 -10.254391 1.8427536 27
-14.986366 -10.26279 1.8936265 8.5
-15.054907 -10.198004 1.8338003 9
4.1628513 -10.077009 1.8605304 4
-19.107601 -9.6056519 1.813385 3
-19.903763 -9.4106274 1.8842084 22
-19.10041 -9.4402065 1.8391689 45
-19.039633 -9.4182272 1.8612846 43.666668
4.0266943 -9.4162512 1.8780106 7
-19.225906 -9.3304691 1.8442978 5
-19.954258 -9.2219772 1.8329432 12
4.0118499 -9.1707373 1.8318282 3
-19.988625 -9.0497742 1.8433143 8
4.0213389 -9.0997343 1.8271713 4
3.9878006 -8.881443 1.8003891 5
4.0242109 -8.8780661 1.8130357 3
-15.290708 -8.7191868 1.8786767 7
3.9620638 -8.7699928 1.8091438 4
4.0558391 -8.7606249 1.8233157 4
13.547507 -8.6250982 1.8252497 38.666668
-20.058182 -8.5479689 1.8616006 19.5
-19.949551 -8.5250072 1.828506 3
-19.183891 -8.5378027 1.8496996 23
-20.0187 -8.4747791 1.8639364 64
-19.316463 -8.4748726 1.8077774 19
-19.20278 -8.4515123 1.8016751 29
-19.190292 -8.4508095 1.8851939 39
-19.446775 -8.3829107 1.8752211 72
-19.248859 -8.3743515 1.8159976 39
-11.547105 -8.2146177 1.8520267 5
-10.860179 -8.2465305 1.8823352 4
-11.621997 -8.1202078 1.8497312 23
-11.525523 -8.1656742 1.8013256 39
-10.837027 -8.1332579 1.8437986 54
14.332902 -8.1761293 1.8374912 44
-10.873341 -8.0449696 1.8675675 33
3.9003024 -8.0636215 1.80481 3
13.527995 -8.0680513 1.8624747 32.5
13.605539 -8.0707302 1.8459561 19
14.068594 -7.9925418 1.8435466 31
16.684008 -7.8285861 1.8411973 49
3.82131 -7.7415123 1.8612722 16
-11.480227 -7.659852 1.8317201 18
-11.190188 -7.6101155 1.8655492 15
-10.960113 -7.6067505 1.8669919 9
3.8768609 -7.6600814 1.8093321 2
-25.468218 -7.5392976 1.8518847 32
-11.055753 -7.5058622 1.8502471 3
17.264467 -7.5599356 1.8616606 23
3.8140306 -7.4723096 1.8083388 9
-3.3032322 -7.3569374 1.8042612 4
-3.2863102 -7.3624201 1.8956237 40
-3.1956291 -7.3590641 1.8549683 24
3.7683873 -7.3551989 1.8345007 9
-2.4327822 -7.2343912 1.8317001 41
-2.351475 -7.2689185 1.8488979 31.333334
3.782053 -7.2361794 1.8075705 2
-2.454361 -7.1833396 1.8333257 50
3.7625518 -7.1426158 1.848923 5
-15.528872 -7.0933552 1.825103 19
-2.446785 -7.0964465 1.8223941 44
3.7833912 -6.9818215 1.802235 2
3.7920382 -6.836648 1.8110144 2
22.736095 -6.8584929 1.8230851 28
0.50966167 -6.7332683 1.8900418 6
-0.13284039 -6.654851 1.8453046 48
0.48518258 -6.6416578 1.8393537 26.5
0.53429246 -6.6890121 1.8370619 6
-3.3019962 -6.4064569 1.8622453 8
-3.2756834 -6.4221673 1.8345116 16
-3.1880918 -6.4068489 1.8114496 21
3.587316 -6.4118767 1.8229655 2.5
3.6341748 -6.4284096 1.8640779 4
-3.3295612 -6.3680148 1.8281603 4
-3.2936585 -6.3871498 1.8963711 23
-2.933805 -6.3549638 1.8931792 22.5
-2.5365696 -6.3618855 1.8465486 39
3.6380997 -6.3886304 1.8558458 7.6666665
-2.711298 -6.2193713 1.8552129 3
-2.6154861 -6.2813115 1.8918076 12
-0.20528555 -6.2090588 1.8024718 12
-0.15923858 -6.2325506 1.810257 43
-0.2004385 -6.190752 1.8915646 29
-0.19894385 -6.1792111 1.8023477 6
0.24030805 -6.1477771 1.8512151 31.5
0.37982526 -6.1307983 1.8461174 33.333332
0.44277191 -6.1119633 1.8940413 12
3.575428 -6.0228214 1.8006119 10
3.5501323 -5.8817186 1.8132695 22
-15.509874 -5.7065029 1.8778653 16
8.2109594 -5.7036638 1.8554543 14
8.1938362 -5.6897249 1.8293166 21
8.2073002 -5.696435 1.8650808 49
9.3789501 -5.5368567 1.8196071 8
8.0614643 -5.4237509 1.8620553 14
9.3422928 -5.3844366 1.8118981 8
7.9092674 -5.1105657 1.8938041 17
8.14013 -5.1455922 1.8795421 54
8.2199554 -5.1126142 1.8714116 46.5
8.0244522 -5.0488291 1.8982131 22
8.1290226 -5.0075417 1.8103055 17
8.680707 -5.0161309 1.8491745 33.333332
8.7084141 -5.0040951 1.8040794 20
10.729117 -5.0204506 1.8432217 24
13.16667 -5.095953 1.8967073 9
3.4145355 -4.9338527 1.8883336 31
7.98773 -4.9747839 1.8387187 24.5
8.0005236 -4.9762869 1.8392589 26
13.140181 -4.9880838 1.863543 14
-25.931749 -4.8787289 1.8117478 15
-25.752352 -4.8433185 1.851061 5
3.4375939 -4.8113422 1.8523476 3
13.146176 -4.8757915 1.8312923 38
16.33638 -4.6231146 1.8326248 19.5
13.11948 -4.5148201 1.8876247 64
16.323498 -4.5697227 1.8375283 12
9.08953 -4.4179811 1.8448102 12
9.1150131 -4.4324923 1.8259325 15.5
10.633368 -4.4327736 1.824381 3
12.993357 -4.4584866 1.8794589 8
13.028543 -4.4721212 1.8546447 26
13.129224 -4.451334 1.8585821 42.666668
13.366782 -4.4193363 1.8323485 25
13.642647 -4.4093208 1.8290405 42.333332
9.1376677 -4.3923855 1.8271277 3
13.640791 -4.3726411 1.8663399 39.75
16.8214 -4.329155 1.80966 7
-15.703846 -4.2258573 1.8400941 4
16.267063 -4.2697411 1.891561 4
-15.781536 -4.1967816 1.8616875 22
10.894635 -4.142364 1.8157458 29
16.252338 -4.1359124 1.8899186 26
22.375374 -4.1072745 1.807795 33
10.560874 -4.0163045 1.8280985 8
16.297964 -4.0222006 1.8482618 55
16.330933 -4.0629349 1.850806 36
-26.146402 -3.9920015 1.833306 17
-22.534468 -3.9932241 1.8341749 5
16.644482 -3.9982283 1.8645321 22
16.790667 -3.9609349 1.8719163 34.333332
16.854586 -3.9542885 1.8832607 4
-21.080511 -3.8028975 1.8258862 2
22.155909 -3.8429532 1.8308823 34
-19.566168 -3.6183193 1.8354447 11
22.106308 -3.5437737 1.8807274 17
22.081551 -3.4100914 1.8740699 13
-15.690151 -3.1458788 1.8497024 2
-12.458727 -2.8229711 1.8443565 17
-12.538919 -2.7984419 1.8372618 6
10.436728 -2.6834571 1.8621731 9
-23.524036 -2.594048 1.8040677 4
-7.4718156 -2.4616661 1.8093179 2
-9.2850428 -2.3562908 1.8353012 4
-26.264233 -1.9080384 1.8435839 14
-1.5460725 -1.8972445 1.8757136 29
2.9908113 -1.80761 1.8672948 24
3.0759144 -1.7799193 1.8547635 13
-1.6090152 -1.2338958 1.8650093 21
-26.506968 -1.1260986 1.8294388 37
-26.473516 -1.1296947 1.8535166 34
1.1401825 -1.1633892 1.8747587 2
-26.587208 -1.0676346 1.8243091 24
-20.288631 -1.0128627 1.8282017 12
-20.176683 -1.0102921 1.8235749 28
-21.002682 -0.90997314 1.8669461 15
-20.163061 -0.95896387 1.8473394 50
2.7364426 -0.92689943 1.8304504 5.6666665
-23.75919 -0.8260541 1.8983246 2
-21.208324 -0.55252314 1.8444959 22
-20.201227 -0.52293879 1.800814 20
5.7048421 -0.54600191 1.8151025 26
-20.231731 -0.42992115 1.8380696 52
-21.111061 -0.37235546 1.8336289 9
-20.25555 -0.22667563 1.8712047 43.666668
7.352705 -0.27202797 1.8023669 15
7.8716497 -0.2151289 1.8012387 9
-20.508585 -0.16716909 1.8415667 69
-12.716428 0.0081782341 1.8228518 12
-12.491772 0.063116312 1.8623348 3
-12.261375 0.091917038 1.8661773 38
-12.608297 0.13437462 1.8778719 53
-12.283918 0.18157482 1.8410569 23
-12.105399 0.11971664 1.8930351 15
-12.032505 0.13156199 1.843827 9.5
-11.952682 0.17970917 1.8426504 44.5
-12.593106 0.20150566 1.8469642 46
10.853621 0.2313565 1.8022554 7.5
12.042427 0.28663427 1.8358769 4
11.725156 0.31778717 1.8228383 10
12.128973 0.35360625 1.8242617 10
12.459746 0.31052399 1.8355188 4
12.448287 0.42342877 1.8397636 2.5
12.53137 0.41085267 1.8567172 4
13.113466 0.4917165 1.85215 2
13.262857 0.48994446 1.8844485 19
12.206574 0.55089176 1.8774766 30
13.228247 0.53050482 1.8746412 3
13.386737 0.544613 1.8462427 3
13.628587 0.56015527 1.8467555 7
14.411761 0.59683609 1.844835 13
-12.326533 0.66279697 1.8212415 33
-11.972495 0.63232046 1.8934364 60
14.292197 0.6529752 1.8603147 8
14.351598 0.64736837 1.8455133 13.333333
14.798725 0.67119741 1.8619814 9
-12.028959 0.76179183 1.8622943 20.75
15.302142 0.79063606 1.8928012 22
15.792932 0.79478073 1.8623465 2
-12.068525 0.80595303 1.8859748 9
12.208347 0.89480472 1.8451952 2
15.446235 0.80282861 1.8882185 3
15.757117 0.85313416 1.8639172 2
16.063837 0.8458181 1.8790973 2
16.612562 0.8852694 1.8613048 2
-4.2706599 0.99955142 1.8224123 13
16.541056 0.91688585 1.8952885 4
16.733555 0.95089722 1.8901631 2
16.905741 0.94643182 1.8977091 3
-23.990515 1.0470722 1.8687065 2
-4.3311863 1.0535476 1.852738 29.666666
12.19925 1.0591068 1.8502944 2
-4.4077253 1.1397762 1.8128721 67
-3.9868431 1.1053488 1.827348 19
-3.5541432 1.1098243 1.8346854 23.333334
18.73325 1.1724539 1.8249848 9
18.886953 1.1897061 1.89279 34
18.908861 1.1762373 1.8761456 19
18.822001 1.2467124 1.8775305 13
21.55139 1.2526827 1.8482524 36
7.0937648 1.3713331 1.810678 18
21.576454 1.332912 1.881073 26
6.9540997 1.4199853 1.8046814 4
-1.3023739 1.5482559 1.8725148 48
-1.2824888 1.5296552 1.8415116 10
-0.75876975 1.5686796 1.8787022 11
-0.66756678 1.5870919 1.8315858 37.666668
11.931547 1.6499579 1.8703225 2
-4.4627614 1.7815045 1.8145057 67
-3.6114516 1.7748437 1.821434 63
-0.69320393 1.7657251 1.8195283 38
-4.4808326 1.8133152 1.8045514 60
-3.6097431 1.8164549 1.8965663 59
-0.9587574 2.1305103 1.8961608 15
-0.82895243 2.1506271 1.8071507 73
-0.75323874 2.1364889 1.8504758 62.5
11.918168 2.1181178 1.8174232 3
8.1634073 2.4715371 1.8396106 15
-24.243385 2.5404525 1.8845842 21
7.1446776 2.5373464 1.8243947 11.5
-24.26165 2.6612849 1.8378248 7
6.9153743 2.6457736 1.8398092 55
6.861496 2.7131042 1.8953236 65
9.9897747 2.7759929 1.8757951 10
9.6568089 2.8729258 1.8229648 26
11.766814 2.8185556 1.8329272 4
-21.467472 2.9602261 1.8925562 3
11.739703 2.9674649 1.8449483 4
-21.437363 3.071981 1.8327745 11
9.4766426 3.090054 1.8676999 7
11.732782 3.003974 1.8439213 4
-21.590149 3.1802845 1.8351712 3
-20.733004 3.178848 1.8644664 38
-20.692465 3.2963152 1.829572 26
6.7750359 3.3838096 1.8654685 11
6.8458962 3.3649051 1.8487231 19
7.0099616 3.3601561 1.8094424 47
11.783348 3.3354719 1.8047191 2
15.480963 3.3732677 1.8122429 6
15.273581 3.5765741 1.8536947 6
-24.394646 3.6713929 1.8446773 33
15.178547 3.6209931 1.8603224 25
15.203646 3.6978793 1.8600851 9
15.489639 3.6103382 1.8398415 7
15.136485 3.7393248 1.8632526 63
15.69364 3.7029967 1.8127174 3
15.719922 3.7300315 1.8487681 13
11.640512 3.8543997 1.8984683 3
-21.652466 3.9216619 1.8403722 37
-20.826376 3.9538996 1.8274539 26
-20.772339 3.9297853 1.8219221 6.5
-13.357529 4.0627241 1.8335031 29
-13.237288 4.0952716 1.8269398 58
9.4571886 4.067543 1.8411353 10
11.645004 4.004446 1.8035926 12
15.091911 4.0934639 1.868808 62.5
15.172911 4.0565929 1.8135189 13
-13.315019 4.1223054 1.84418 37.333332
-13.285082 4.1537843 1.8580208 45
-13.100126 4.1459522 1.852442 34
-12.57753 4.1693029 1.8887221 9
9.4229498 4.1992683 1.8626511 5
11.610257 4.1245146 1.8289626 5
15.125736 4.153883 1.8131971 62
-13.295025 4.2037878 1.8593628 58
-12.326199 4.2487564 1.8429918 23.6
-12.290585 4.2670441 1.8649317 35
11.628431 4.2514219 1.8128419 7
15.066875 4.22791 1.8591477 36.5
15.136028 4.268384 1.8231173 30
-12.291327 4.3127117 1.8510281 22
15.72327 4.3715186 1.8482633 38.5
21.065208 4.4504595 1.8546283 24.5
21.105278 4.4629993 1.8535082 58
-13.414532 4.7894077 1.8778951 12
-13.381067 4.7558331 1.8386734 43
-12.333964 4.7572222 1.8395303 25
20.998684 4.7688198 1.8745769 25
-13.458362 4.859026 1.8350143 13.666667
-13.380265 4.8853407 1.8278588 53
20.974045 4.8657856 1.8614202 22
-13.31758 4.9472933 1.8504082 21
-12.62418 4.9865503 1.843024 49
-12.38689 4.9607716 1.8649851 31
-12.476573 5.0221157 1.8891335 57
-12.387863 5.0120401 1.8962789 20
21.160122 5.0530887 1.8615577 62
-4.8845348 5.1941571 1.8004882 38
-4.7956204 5.1631007 1.8755199 24
21.183771 5.1741924 1.8250066 15
-4.8656073 5.2225022 1.8691772 36.400002
-4.6327786 5.2097244 1.8647175 34
-4.1289616 5.2602611 1.8266392 11
9.247982 5.2078362 1.8551909 3
-20.66927 5.3369045 1.8919582 11.5
-4.0615139 5.3231664 1.8617964 26
21.116444 5.3875694 1.8952491 18
-4.9952931 5.9466891 1.8640245 8.666667
-4.1536894 5.9863586 1.8182706 48
-4.1614928 6.0738721 1.8624235 23
-29.919706 6.1946621 1.8135169 13
-29.897346 6.2358561 1.8435466 22
-29.491684 6.2585821 1.8399446 33
-22.738876 6.296309 1.8673935 22
-29.682442 6.3994303 1.8225602 37
-22.638216 6.530427 1.8917104 11
9.1393051 6.5566406 1.8047959 2
-22.689318 6.7313299 1.866533 15
9.1231089 6.7347808 1.8600439 7.3333335
7.8219271 6.8852692 1.8277601 9.5
9.1382637 6.8040085 1.8718026 3
-22.402533 6.9508076 1.8800559 14
-21.176287 6.9597197 1.8995407 11
-29.860985 7.0603523 1.8772224 24
7.6760292 7.0944881 1.8883444 3
-29.573956 7.1288662 1.8039176 9
8.9587736 7.1503153 1.8169097 3
-23.49177 7.2900791 1.8601124 11
-22.37557 7.2353473 1.8764365 15
8.9769907 7.2652674 1.8592317 5
9.0176678 7.2163405 1.8402481 16
-23.243153 7.3274126 1.8800943 8
-22.57304 7.3959904 1.890789 10
-21.967205 7.3184748 1.8204386 51
-21.895178 7.3429599 1.8499262 51
-27.974661 7.4282532 1.8182435 2
-27.556545 7.419982 1.8140926 28
-27.215157 7.4086409 1.8485184 12
-22.739264 7.4753199 1.886476 7
-27.659466 7.5266514 1.8508611 10
-24.079929 7.5405974 1.8634841 18
-33.62466 7.673193 1.856236 36
-33.484528 7.6154327 1.8574636 53
-26.996729 7.6615744 1.8094466 3
-24.131832 7.6372862 1.8580681 18
-23.037485 7.6412144 1.8513174 11
-22.396624 7.6712832 1.8335955 2
8.9231844 7.6579628 1.8706553 3
-33.630177 7.7299089 1.861284 39
-33.582176 7.7798834 1.8226947 23
-24.443745 7.7218184 1.8072309 24
-24.05065 7.7709813 1.8175025 15
-22.067924 7.7055516 1.8525412 8
-18.978571 7.7112379 1.8150893 36
8.8958693 7.7813931 1.8131707 2
-27.570759 7.8766985 1.8100865 3
-24.150249 7.8531866 1.8648386 15
-24.015182 7.8418231 1.8266021 7
7.6180744 7.8377085 1.8976505 29
-26.92548 7.9876537 1.8022224 6
-24.549967 7.9531498 1.8102942 4
7.7668567 7.9503021 1.8650738 12
8.8749008 7.9767313 1.8578209 25
-23.945551 8.0757408 1.8224969 17
11.152106 8.0189571 1.8969342 2
-28.639566 8.1384325 1.8298682 10
-25.772341 8.1020613 1.8058068 15
-24.421747 8.1173735 1.8469921 3
-23.659924 8.1693745 1.899158 5
-22.486471 8.1163807 1.8537033 8
8.8593731 8.1549435 1.8671932 2
7.3604012 8.2917585 1.8237414 13
-38.48687 8.3839979 1.8407934 56
-23.572397 8.3366213 1.8414031 16
-22.663294 8.3269215 1.8850827 3
7.5607085 8.3375597 1.898635 4
8.8000813 8.3950262 1.8938535 7
-28.713871 8.4328537 1.820752 4
-23.437983 8.4397631 1.8282857 24
-22.697847 8.4828157 1.8834617 15
-13.674188 8.4141712 1.8619158 17
-13.558275 8.4198208 1.8080897 24.5
7.5506477 8.4789181 1.8928149 4
-31.716619 8.5458584 1.8960876 9
-23.373642 8.5868912 1.8357654 18
-24.252108 8.6771536 1.8568375 4
-22.836542 8.6923971 1.8880529 6
-26.309656 8.7303877 1.8159301 5
-36.080364 8.888154 1.8389428 26
-31.825218 8.8036022 1.861738 4
-31.793646 8.8306007 1.899624 8
-23.222488 8.8846169 1.8098397 26
-28.829712 8.9725428 1.8286219 17
-27.380188 8.9712658 1.8087333 3
-24.590271 8.985817 1.8381784 4
-18.983246 8.9448195 1.8081728 7
-9.1485949 8.9682589 1.8294349 7
8.7105942 8.9976025 1.8326862 2
-36.692802 9.017971 1.8370891 11
-34.922699 9.0563221 1.8099186 25
-33.829544 9.073307 1.8728158 56
-28.874565 9.0525141 1.814429 9
-27.813879 9.0428371 1.8447582 10
-27.775999 9.0758638 1.8612388 17
-23.095026 9.0533295 1.8374463 32
7.438055 9.0604782 1.8843052 3.5
-36.435867 9.1182575 1.8821745 27
-33.854858 9.1802616 1.8270619 29
8.7478991 9.1849899 1.8497003 9
-33.865379 9.2020779 1.8075786 31
-25.441822 9.242403 1.8556805 7
-24.56514 9.2657423 1.8103538 9
7.4358001 9.2466316 1.832865 4
-26.068819 9.3224583 1.8480761 35
-19.113071 9.4910603 1.8346584 2
-5.1844444 9.447608 1.8939242 13
-5.0986843 9.4594345 1.8384187 14
10.982386 9.4979 1.8252505 6
-24.62471 9.5818558 1.8142556 16
-19.128754 9.6037951 1.8945496 30
-27.09292 9.7746286 1.8878601 25
-14.112759 9.7196064 1.8776712 5
-27.079842 9.8180285 1.8968403 12
7.3906088 9.8720827 1.8859638 6
-26.995365 9.9989901 1.876555 11
-1.7468711 9.9400139 1.833254 17.333334
-27.022636 10.077209 1.8428335 11
8.6012754 10.149392 1.8838708 15
-27.158583 10.270625 1.857839 7.5
-27.108444 10.364666 1.8810436 20
7.2227049 10.517878 1.8435287 4
8.502697 10.731219 1.8403685 10
5.9555998 10.861362 1.8113167 31
6.0498242 10.908337 1.8239686 40
6.6843548 10.999449 1.8728555 2
8.5345173 10.964895 1.8522916 7
-1.7514502 11.136312 1.8690331 4.1999998
-1.7572184 11.208653 1.8921887 2
7.2111926 11.372665 1.8673805 11
-1.8141527 11.674248 1.8951299 3
-1.7895746 11.616413 1.8009652 4
5.7791986 11.689966 1.8645823 20.5
5.8040581 11.693367 1.8544493 32
7.1534977 11.665029 1.8538274 9
10.706138 11.619325 1.8002833 3
5.8304877 11.711348 1.8976313 32
6.5980625 11.79309 1.8688703 29
14.114979 11.964998 1.8580968 37
14.588422 12.021261 1.8941876 50
14.657478 12.039802 1.8371925 24.666666
14.708729 12.027076 1.8507332 17
-1.8508568 12.196558 1.8286237 2
14.013824 12.145787 1.8405221 14
14.720071 12.15027 1.8949734 19
7.3766098 12.435621 1.8739096 5
7.4180088 12.455786 1.8580353 7
-27.497911 12.59346 1.8234868 3
12.524146 12.572188 1.8588238 3
20.193985 12.585659 1.8769722 36
7.5191236 12.62184 1.8642334 10
7.6115842 12.689222 1.8206381 3
14.06022 12.624991 1.8042164 27
20.199875 12.614281 1.8072097 37
-27.4909 12.720287 1.8214414 6
7.6804104 12.753381 1.855143 12
14.074033 12.780697 1.8134569 36
14.115185 12.735958 1.8396471 22.5
20.153206 12.792732 1.847415 52
7.8999634 12.880614 1.8608991 14
19.95804 12.856884 1.8367739 14.666667
-27.479704 12.988941 1.8500404 26
18.442099 12.955225 1.8349298 2
-23.920101 13.069612 1.8732483 15
-1.9837337 13.063416 1.8964469 1
18.37174 13.021955 1.8196774 7
18.43696 13.072125 1.8247547 10
-27.407688 13.153404 1.8768094 34
9.3151703 13.175827 1.8484559 17
17.289202 13.122433 1.835568 4
19.923285 13.117901 1.8090714 60
10.575115 13.270123 1.8353307 5.5
19.888355 13.261055 1.8228805 43
19.927284 13.263333 1.8057965 9
10.575844 13.322781 1.8356352 6
18.424229 13.363837 1.8774362 22.5
19.871511 13.360753 1.8425226 27
20.07312 13.399807 1.8016548 27
-27.590635 13.404188 1.8318303 4
-23.945246 13.490574 1.8438098 7
8.6827106 13.485563 1.8665009 2
8.7415657 13.491197 1.8480618 4
-39.310005 13.506201 1.8066477 57
8.7226391 13.525983 1.825184 2
-27.578201 13.657218 1.8194389 18
-34.909458 13.79961 1.8613588 2
-34.891232 13.729416 1.8661971 2
-39.129066 13.854238 1.8422403 33
-37.085663 13.871731 1.8098248 8
-22.841223 13.876039 1.8704739 12
-2.0716274 13.860803 1.8147868 14
-37.061157 13.919891 1.8441998 12.5
-22.829338 13.998174 1.8432667 12
-22.848763 14.062407 1.8692294 23
6.6604466 14.017046 1.8598909 9
-24.062038 14.160638 1.8673761 9
-31.531406 14.289838 1.8253824 61.5
-23.971363 14.211594 1.8602846 21
6.5352249 14.264977 1.8842322 21
6.6165819 14.243273 1.8904849 10
-31.508516 14.330153 1.8255109 47
18.279324 14.326446 1.8042593 4
18.580576 14.393171 1.8636358 5
-19.831259 14.454979 1.8523239 14
18.191921 14.493296 1.8570555 14
18.214043 14.461286 1.865384 13.666667
18.598568 14.450267 1.8415045 8
18.639677 14.443787 1.8738432 7
-14.407898 14.567823 1.8289485 31.5
-14.36442 14.587561 1.8651114 4
-14.271839 14.570684 1.8509487 17
18.194166 14.521103 1.8069043 14
6.541595 14.679005 1.8418212 7
18.626719 14.676038 1.8814918 4.5
6.5448866 14.768312 1.8954642 5
-2.227531 14.839579 1.8896043 4
-30.837275 14.939435 1.8527266 54.599998
-2.0947256 14.931087 1.8616031 4
6.5210853 14.917353 1.8981915 33
-27.563049 15.132776 1.820711 16
-2.2386389 15.362849 1.8595634 2
1.2259636 15.348488 1.8926558 7
2.1359038 15.319496 1.8859129 10
2.4496508 15.376087 1.8515314 9
10.347634 15.333788 1.8429421 7
-2.2465241 15.426245 1.8606051 3
-2.1447077 15.405844 1.8914058 2
2.1435764 15.416907 1.882845 7
2.3564994 15.432388 1.8662432 9.666667
2.4309301 15.418028 1.8138566 17
-23.01465 15.528893 1.8335338 26
-25.388369 15.651948 1.8943934 76
-25.004459 15.69698 1.8166814 62
-24.740555 15.69571 1.8033435 59
-5.7156115 15.692919 1.8397181 59
-5.7240634 15.709744 1.8112117 49.5
2.7807055 15.769688 1.8843422 60
2.8062563 15.787857 1.8370253 39
19.610878 15.983317 1.8149676 8
-24.968124 16.041092 1.8122094 11
-19.100937 16.083143 1.8352299 19
1.099647 16.024139 1.8497137 5
-18.858189 16.136166 1.8649863 16
7.5251427 16.383442 1.8600315 40
7.5442238 16.44577 1.8186572 16
19.647795 16.468876 1.8257177 5
-16.058907 16.539684 1.895213 22
-15.977679 16.55143 1.8553847 18
7.4997272 16.547474 1.8475866 55
7.5133805 16.552044 1.839843 28
-17.816528 16.66147 1.8235238 16
-16.075626 16.638191 1.8043979 24
-15.942664 16.61157 1.8781536 16
7.5141268 16.693466 1.8185992 21
-17.356844 16.705566 1.8281484 13
-2.4399137 16.785259 1.8535389 5
7.4940195 16.724277 1.8152328 48
-16.871901 16.802118 1.8462479 16
-16.415962 16.846674 1.8522217 13
-2.4465466 16.892639 1.865937 2.5
10.082609 16.889198 1.8280234 3
10.132032 16.875961 1.8573546 5
-17.791977 16.990108 1.8451093 10
-17.530804 16.957289 1.8973334 27
-17.461176 16.970186 1.8173256 15
-17.012131 16.936029 1.8560412 15
-16.041927 16.962807 1.8386965 11
-17.214426 17.009151 1.8795036 12
-2.6291733 17.198372 1.8863027 56
-2.3122458 17.190212 1.8857633 5
-15.598269 17.223196 1.8871598 12
18.193523 17.298695 1.8315897 10
18.25001 17.24408 1.8174827 5
-2.5149629 17.382507 1.8505106 3
0.93984509 17.372343 1.8347824 7
1.0335879 17.39444 1.803344 6
17.875467 17.374216 1.8719149 10.333333
17.927065 17.377533 1.8288387 11.333333
18.144629 17.325512 1.8160275 10
-2.5209599 17.421535 1.8857555 5.5
18.129232 17.474535 1.8344684 5
-18.73135 17.58707 1.8148416 7
2.4476876 17.509441 1.8118669 15
-6.44631 17.861408 1.8126085 22
-6.3842287 17.83206 1.8176754 62
-2.612462 17.888737 1.8057158 8
-15.011578 18.151295 1.8616298 8
-22.385679 18.26734 1.8344775 33
18.1173 18.258183 1.844082 5
18.242722 18.283808 1.8608899 12
9.9707508 18.334221 1.8300107 4
18.122574 18.310989 1.8596581 8.5
18.22858 18.306892 1.8295527 11.5
18.303057 18.313774 1.8923777 15
18.972439 18.424526 1.8664851 4
19.053396 18.423138 1.8352476 7
-13.702594 18.536797 1.8048822 10
7.2477355 18.611914 1.8515639 13
-1.3394017 18.742245 1.8508635 2.5
-2.7615099 18.909946 1.8461738 5
-7.9255629 19.048687 1.8090439 10
-1.9196825 19.006172 1.8127233 2
-1.4403257 19.095543 1.804724 4
1.5762196 19.069618 1.8633986 10
1.6098804 19.0965 1.8775256 4
-7.9611168 19.116833 1.8698173 11
-1.7562456 19.279827 1.8053106 15
-1.7201242 19.313341 1.8214091 2
-1.6070204 19.634365 1.863292 6
9.2190638 19.677561 1.8184804 9
9.1925497 19.731785 1.8025445 12
19.296247 19.779558 1.8086421 44
10.297176 19.874035 1.8574409 14.5
10.324076 19.852478 1.8085606 10
19.294888 19.812147 1.8445225 52
19.31123 19.815496 1.8409684 45
2.183743 19.994301 1.802213 6
5.6189728 19.9636 1.8206246 37.5
5.7911625 19.97699 1.8506935 26
5.826396 19.962551 1.811529 7
19.067919 19.94084 1.8681091 29
-0.88257647 20.018278 1.8631034 3
5.8068676 20.075691 1.8046831 14
6.5647678 20.090694 1.8196541 15
19.060753 20.030418 1.8540843 12
19.236601 20.003614 1.8953953 53
3.3872838 20.135448 1.8307382 14
6.8848343 20.111916 1.8599809 20
6.9882464 20.175795 1.8667227 7
7.0570412 20.120508 1.8497964 52.333332
-1.6734209 20.2799 1.8253864 14
1.3780956 20.239056 1.8241726 6
1.4082494 20.23123 1.8974252 5
2.3271289 20.283785 1.8019385 3
-1.5251774 20.377169 1.8855753 10
2.6577458 20.330761 1.8314869 9
2.7816987 20.340309 1.8707795 5
2.9662066 20.370369 1.8585725 11
4.8509698 20.34506 1.8543514 12
4.9774218 20.365578 1.836836 9
13.06447 20.331968 1.8326687 26
13.122985 20.312132 1.8191874 66
13.66064 20.379349 1.8701818 24.5
-6.7800026 20.443701 1.8003314 28
6.10288 20.453234 1.8094999 27
6.8359594 20.491367 1.8085811 5
13.038716 20.453125 1.844171 31
13.644399 20.457733 1.8348699 45.666668
-1.7206659 20.505346 1.8695643 6
3.3160725 20.583809 1.8412026 6
3.476408 20.556503 1.8018625 6
3.5950923 20.589567 1.8304513 8
3.6033983 20.583895 1.800118 5
4.4844098 20.551233 1.881833 12
6.3963118 20.510731 1.85007 15
6.4317837 20.522381 1.8717639 26
6.9684954 20.536026 1.8210242 11
7.0191941 20.538549 1.8198227 15
7.2621307 20.538605 1.8206328 4.5
7.4219446 20.572998 1.8063658 3
7.8542376 20.51679 1.8611207 4
8.8628912 20.598658 1.8834404 11
8.9155226 20.584457 1.8265448 3.3333333
12.965905 20.584679 1.8429202 11
13.657446 20.529308 1.8926497 37
18.95071 20.555233 1.8256457 39
19.014051 20.516912 1.8626561 50.333332
19.252176 20.593111 1.801985 30
3.7700953 20.638489 1.8091801 8
3.8817496 20.670181 1.8134444 9
4.0570288 20.646242 1.8344648 5.5
4.2445283 20.67865 1.8555436 16.333334
4.367506 20.69183 1.8776666 17
4.4098806 20.632475 1.8210053 16
4.6858807 20.654039 1.8453187 10
4.7489362 20.614658 1.8521037 11
5.1595726 20.635614 1.8837091 10
7.3010497 20.669909 1.8829529 28
7.6857643 20.63261 1.8225235 4
7.7237401 20.630455 1.8269217 6
7.9958892 20.624414 1.8335826 4
8.0374212 20.610485 1.810389 3
8.1201143 20.642302 1.8093477 6
8.4344559 20.69466 1.8401084 3
8.9906893 20.681265 1.8754145 2
19.128902 20.65193 1.8696944 3
19.238306 20.61739 1.8059188 33
5.9655442 20.733898 1.8874528 11.5
6.7513781 20.767487 1.8234746 16
7.7061501 20.713139 1.8610508 7
7.8412762 20.705126 1.8931042 12
8.2707062 20.770876 1.8868344 18
8.4181385 20.712025 1.8432488 9
8.8043327 20.730858 1.863889 18
9.1752062 20.767908 1.8786025 2
9.205843 20.761761 1.8518045 3
-1.895195 20.80838 1.8017468 3
6.7815895 20.81175 1.8326459 8
6.9669938 20.811054 1.8115561 14
7.0259075 20.848385 1.8367754 8.5
7.3220115 20.819902 1.8214025 3
7.479372 20.871799 1.815016 9
7.5155401 20.873852 1.8094906 8
8.31633 20.85413 1.8498816 3
8.427062 20.86684 1.8216931 2
9.2234364 20.846401 1.8672318 12
9.449254 20.804853 1.8512872 2
9.5540934 20.85664 1.8794341 12
9.9481058 20.899176 1.8899469 2
12.954337 20.889545 1.8124307 2
13.121677 20.898632 1.8058296 27
21.339901 20.831305 1.8383641 12
-1.7909164 20.916424 1.8920038 14
7.3052115 20.941513 1.8926202 10
7.8165846 20.96463 1.8337047 19
8.0370884 20.931084 1.8267752 10
8.1420879 20.953844 1.8471467 13
8.3305531 20.966381 1.84547 15
8.4453907 20.984842 1.842083 5
9.9176321 20.917805 1.8841501 5
10.085965 20.925243 1.8788725 3
10.155241 20.931683 1.8819869 3.75
10.370964 20.953117 1.8882432 3.5
12.65534 20.979279 1.8948209 15
12.994717 20.904751 1.8953174 41
13.021315 20.929283 1.8483069 13
13.146785 20.901588 1.8631818 29
13.547233 20.984695 1.8547856 33
22.237047 20.938852 1.872962 15
5.4319835 21.029827 1.8968453 12
6.8675079 21.038309 1.8755406 10
6.9531603 21.002821 1.8619744 8
7.5354452 21.086535 1.896435 4
7.7312727 21.080322 1.8907818 14
8.4786644 21.005255 1.8284849 6
10.762026 21.006573 1.8942394 15
11.098872 21.051321 1.897217 11
12.649427 21.039181 1.8963263 25
13.526186 21.010208 1.8735632 11
-1.7321596 21.134655 1.8497279 14
7.4497924 21.102196 1.884529 9
7.7482429 21.138411 1.8818505 4
8.7694397 21.143084 1.8628511 8.5
8.8384571 21.154083 1.81306 8.5
9.1341305 21.105656 1.8668776 21
9.3108091 21.102257 1.8338479 6
10.022654 21.15333 1.8907002 17
11.43914 21.110113 1.8945099 4
8.7739124 21.210661 1.8840691 2
9.5855951 21.271292 1.8898236 10
9.7021914 21.286602 1.8300539 22
10.254106 21.205385 1.877858 10
10.636208 21.261429 1.8910428 17
0.94393826 21.39604 1.8822984 13
0.9502182 21.426378 1.8711606 6
12.639795 21.654573 1.8141329 4
12.949916 21.684446 1.8264021 22.666666
13.012147 21.67588 1.8552833 31
0.92550468 21.716616 1.8804337 12
12.569318 21.718071 1.874333 7.5
12.834347 21.700064 1.8135357 15
12.942376 21.710968 1.8622288 16
0.97476101 21.838083 1.8759556 15
-20.406033 21.908066 1.8167953 50
0.86357403 22.166174 1.8932749 7
25.979549 22.128727 1.8761482 18
-3.6529417 22.305412 1.8659487 13
2.7731037 22.350363 1.8249986 9
2.8014917 22.35305 1.8511781 2
-1.9500961 22.434635 1.8034023 16
2.9928179 22.427513 1.8238851 4
3.0802279 22.444902 1.8306653 3
3.2478857 22.443773 1.8409641 14
3.459836 22.48414 1.8424034 4
0.77735901 22.555126 1.8355037 21
4.2745366 22.598957 1.8617425 6
-3.4120216 22.627401 1.8586521 13
2.9658289 22.678091 1.8191705 8
3.130229 22.68615 1.8277425 4
3.4568958 22.698488 1.8296633 10
4.4272871 22.623484 1.8236501 18.5
4.8354173 22.681843 1.8053437 7
4.949707 22.6607 1.835335 22
5.8756251 22.781982 1.8763272 27
4.3781509 22.845421 1.8590696 9
4.5962067 22.880566 1.8530066 2
9.3323765 22.854094 1.8125936 13.5
3.6084738 22.975273 1.8959112 3
5.4973412 22.98472 1.82719 13
6.7880707 22.950489 1.8151801 6.5
5.7865419 23.01156 1.8057324 17
6.3564024 23.078878 1.8027917 14
6.7485542 23.045618 1.8091574 12
7.1584597 23.075487 1.8156321 9
7.748405 23.096239 1.8214658 6
-18.583321 23.101162 1.8200722 3
-15.975782 23.103397 1.8215613 10
-12.516511 23.161558 1.8252074 8
-12.498526 23.116257 1.8263166 18
-12.267564 23.118923 1.8460089 10
6.5748458 23.125679 1.8347358 11
6.658247 23.11377 1.823324 16
6.743433 23.144083 1.8451363 12
7.2294579 23.114225 1.8188188 6
7.5231352 23.197273 1.812499 13
7.6988935 23.183777 1.8222113 3
7.9559922 23.18288 1.8152215 7.5
8.0189896 23.153109 1.8274474 2
8.1144276 23.12492 1.8240929 5
12.982875 23.151665 1.8487997 22
13.063322 23.170877 1.8887532 25.5
-15.721475 23.240023 1.8096784 15
7.4317322 23.234385 1.8938546 12
7.6709166 23.213585 1.8216729 5
8.0430317 23.281967 1.8443005 4
8.5820017 23.267834 1.8454665 11
12.965569 23.219337 1.8555686 15
-0.94429684 23.367733 1.8755865 2
1.423243 23.348385 1.8797114 7.5
8.0333099 23.323738 1.8268981 4
8.4886246 23.343554 1.8335762 11
8.6085472 23.351717 1.8392329 10
8.76472 23.398001 1.8340153 2
8.972126 23.302792 1.8707261 6.5
9.686882 23.309252 1.8627707 2
-12.636479 23.475365 1.8069172 16
-12.216958 23.480518 1.8546643 31
1.3977852 23.487823 1.8217602 18
9.5515146 23.484787 1.8672967 13
9.6211939 23.480694 1.8702486 10
9.8542871 23.402134 1.8682334 19
9.9477158 23.417171 1.876339 24
10.422871 23.434256 1.8943994 4
-12.643402 23.502705 1.8132501 12
-12.558776 23.555183 1.8489332 14
3.4128685 23.500387 1.8883356 26
9.7764874 23.518629 1.8916922 19
1.0741034 23.636948 1.8102243 6
1.4953375 23.698627 1.8685579 14
10.44573 23.631645 1.8941078 11
3.4779353 23.754652 1.8787298 15
-3.572546 23.842825 1.8323331 8
2.082407 23.815268 1.8123707 4
2.1490278 23.85322 1.809021 2
2.3477669 23.868 1.8235197 17
2.4341424 23.856581 1.8132105 4.5
2.5397558 23.851656 1.8206881 4
-17.450035 23.997475 1.8495592 15
1.3466434 23.920687 1.8025123 25
2.6047812 23.906364 1.8189616 11
2.9807081 23.932293 1.8143532 3
3.0766582 23.954142 1.8579276 3
3.2923527 23.978025 1.8134563 9
3.3574982 23.927593 1.8530577 13
3.543582 23.972553 1.824311 5
-4.8609686 24.082186 1.82323 12
-4.2275858 24.075119 1.8375202 10
3.3583803 24.046225 1.8528422 18
3.5782957 24.053165 1.8820488 5
3.6025157 24.016132 1.8552083 5
3.7377226 24.050066 1.8513532 8
3.8339553 24.042526 1.8418895 5
3.9863367 24.074451 1.8626298 8
4.0136833 24.078829 1.8706374 13
4.4255524 24.073063 1.855854 8
4.5552292 24.096424 1.8790774 12
5.5525556 24.048971 1.8482865 3
5.6450024 24.049797 1.8593552 8
-4.9614239 24.132311 1.8767784 13
-4.8818197 24.181025 1.8681066 26
0.55307293 24.192747 1.8364221 7
3.3972473 24.195812 1.8771293 14
4.1703296 24.123663 1.8612913 14
4.5969458 24.125343 1.8806309 8
4.6878319 24.153244 1.8831464 3
5.671073 24.10351 1.8517847 14.5
5.7655597 24.164162 1.8880535 13
-4.784008 24.273289 1.8137121 105
4.6174121 24.200359 1.8967634 13
5.2515488 24.231834 1.8603035 6
12.891253 24.214584 1.8787643 8
12.913685 24.221512 1.8576202 14
17.473316 24.220713 1.8110901 4
-4.9049702 24.390593 1.8987648 5
-4.8604012 24.37929 1.8153634 6
3.3135118 24.324144 1.8335307 17
3.5113559 24.337843 1.8213139 31
3.8330755 24.388716 1.8577485 2
5.5906725 24.389526 1.8954738 10
6.1274853 24.305813 1.874264 9
-4.9624968 24.474689 1.8439966 4.5
3.9284382 24.436657 1.8281764 24
4.0257378 24.431036 1.8345803 7
5.5609879 24.487913 1.8586069 8
5.6693854 24.479858 1.8245567 6
5.6028233 24.546965 1.864521 5
5.7177572 24.508333 1.8795563 11
-3.5674086 24.688484 1.8014768 39
-4.2764549 24.714243 1.8087406 5
3.271492 24.751339 1.8649832 10
6.2526293 24.76107 1.8593087 18
6.6429005 24.788477 1.8399379 9
6.728426 24.721964 1.8535569 6
6.8672905 24.795704 1.8355607 7
7.2082486 24.788057 1.8423265 7
8.2260666 24.737783 1.8965327 4
10.414421 24.744123 1.8512208 6
-2.4218583 24.841198 1.8019108 11
6.3219347 24.822935 1.8231107 9
6.7448511 24.846498 1.80733 10
6.9381757 24.873077 1.8385379 15.5
7.148407 24.881302 1.8364542 5
7.2503247 24.844078 1.8320439 6
7.3953381 24.855171 1.8150138 12
7.4813933 24.896301 1.8513217 14.666667
7.5891237 24.858568 1.8848698 20
-4.3125734 24.914516 1.8053401 5
-3.8489571 24.93511 1.8127325 8
3.279932 24.979107 1.8928537 23
7.0820117 24.920277 1.8099045 2
7.2341652 24.920341 1.8082657 3
7.4396224 24.937929 1.8507892 13
10.351351 24.974609 1.8820646 2
6.104681 25.235153 1.8758113 10
-0.24427414 25.374208 1.8297744 3
0.45329285 25.398848 1.89978 3
0.51110458 25.386414 1.8178151 4
3.1989031 25.307039 1.8255417 16
3.202549 25.336903 1.8457419 9
-0.25434875 25.401323 1.8193488 4
3.1895809 25.551527 1.8961231 19
3.6047053 25.585768 1.8459425 10
3.2221432 25.627937 1.8509692 17
5.9745445 25.690086 1.8930101 10
4.0330138 25.910664 1.8413647 4
5.9785371 25.993752 1.8924381 5
4.5704331 26.094193 1.8122495 14
5.9374871 26.064056 1.8811876 8
-7.4967518 26.138569 1.8672187 35
4.6942086 26.125847 1.8462118 8
4.8233643 26.149279 1.841334 14
5.186379 26.189661 1.8416096 2
5.2291265 26.184706 1.830299 10.666667
5.4731479 26.20985 1.8686519 13
5.6330175 26.252184 1.8851951 13
5.7086124 26.274364 1.8665375 10
5.8224521 26.275606 1.8911905 8
5.9695959 26.279997 1.8776207 7
5.7547235 26.327187 1.843841 3
5.9736571 26.305384 1.8465219 4.5
6.2349072 26.344728 1.8777378 16
6.3464718 26.342119 1.8314348 23
6.4418993 26.36841 1.8187305 11
6.5549259 26.355003 1.839056 8.5
6.7618661 26.386948 1.8137207 5.5
8.9490585 26.390709 1.814936 4
6.8595982 26.404764 1.8868223 5
6.9749703 26.446835 1.8891098 8
7.0025291 26.447027 1.8080137 17
7.1548991 26.463724 1.8391926 10
8.1319036 26.455296 1.8494895 4
8.937748 26.452559 1.8236899 9.25
9.0055151 26.487062 1.8057737 11
-16.290737 26.563606 1.8611337 10
-13.911345 26.541908 1.8660299 5
-4.214673 26.513103 1.803082 8
0.18372917 26.561951 1.8274732 14.5
6.3497443 26.586334 1.8130745 18
6.4274411 26.588686 1.8166502 9
7.7365475 26.561295 1.8037055 14
8.0130777 26.520487 1.8794273 14
8.1643238 26.544956 1.8410765 5
-3.3211298 26.665607 1.8552823 23
-3.0408173 26.669437 1.8660783 15
6.0102749 26.603521 1.8125484 4
6.5615778 26.653416 1.8132355 11
7.0379219 26.686695 1.8285909 16
8.517993 26.6894 1.8013539 7
8.8859196 26.693417 1.8407183 9
9.1582603 26.69809 1.8894821 4
-2.5343542 26.766739 1.8683276 16
-2.4338548 26.761057 1.885253 14.5
7.2946963 26.736753 1.8306453 28
8.5958595 26.749374 1.87747 9
8.9441156 26.708351 1.8227611 15
9.2012062 26.722292 1.8499048 13
9.3629551 26.733185 1.8549078 10.5
9.5005836 26.780207 1.812974 9
9.6219387 26.753048 1.8746631 10
-2.1648941 26.825752 1.8556957 14
-1.8910093 26.884426 1.8330925 15
-1.5711136 26.889425 1.8937159 20
3.0479794 26.809788 1.8248357 11
10.156662 26.836521 1.8828402 6
10.216208 26.888247 1.8818613 10
10.439816 26.865965 1.8759171 12
-1.3762655 26.909906 1.8827224 22
-1.2486439 26.914259 1.8903158 14
3.0320368 26.913803 1.8263814 16
8.6996212 26.909277 1.8478752 26
8.844882 26.942905 1.8294574 13
8.9455013 26.963682 1.8026952 18
9.0033951 26.990177 1.8769946 11
10.72042 26.968033 1.845577 7
10.979418 26.996939 1.8688231 9.5
11.223225 26.953943 1.895098 8
-0.5204668 27.042774 1.8973403 13
2.9979582 27.069338 1.8491683 13
10.870073 27.048309 1.865731 3
11.145428 27.032925 1.8677051 12
11.443621 27.085247 1.8584769 3.5
11.723316 27.06362 1.8877717 13
12.080744 27.032801 1.8691254 13
12.175548 27.050774 1.8921831 3
-16.337492 27.130009 1.8507118 15
-3.9127603 27.154638 1.8603753 9
-3.6245537 27.181011 1.8533316 16
-2.7397718 27.175165 1.8663173 11
-1.9376726 27.178562 1.8365154 15
8.8666964 27.126635 1.8055967 9
9.6148462 27.14566 1.8150548 5
9.8610096 27.138523 1.8230911 19.200001
9.9825268 27.135946 1.822274 13
10.21607 27.143253 1.8619738 14
10.300293 27.188257 1.8401934 6
10.547032 27.199064 1.8505789 8
12.609358 27.172583 1.8990263 11
-8.2892218 27.2859 1.8913856 7
-2.9778748 27.239105 1.8922744 10
-1.3603859 27.29978 1.8270581 13
1.1718817 27.232229 1.8854983 11
1.3304138 27.272457 1.8462253 6
2.9767778 27.261906 1.8567189 17.5
3.0211039 27.220482 1.8303105 12
8.7635288 27.284595 1.8466512 10
10.862213 27.263344 1.8512696 4.5
11.024086 27.272335 1.8611051 4
12.506032 27.230787 1.8752042 4
14.5443 27.249043 1.8791867 12
-8.143302 27.318169 1.8170187 7
-2.5220456 27.329725 1.8647348 10.5
-2.3515847 27.339821 1.8898299 11
-1.5816317 27.370163 1.8764167 15
8.7229633 27.347443 1.8448722 4
8.8780622 27.34844 1.8152742 4
9.8035793 27.351637 1.8427644 4
11.233037 27.346512 1.8753479 10
11.342331 27.327343 1.8578566 3
11.471016 27.329229 1.8742511 4.5
11.55722 27.365017 1.8656384 3.75
11.607385 27.361967 1.8352298 2
11.758584 27.349556 1.8788 5
-0.20038986 27.481312 1.896044 12
0.074583054 27.486336 1.8290615 11
9.7887421 27.40155 1.8104454 4
11.976417 27.444683 1.8714614 7
12.110404 27.465014 1.8090103 2
12.835212 27.483713 1.8902417 21
-1.1380119 27.518919 1.8944108 7
3.7557445 27.535604 1.8671722 20.5
3.8526127 27.575989 1.8461756 16
3.9207101 27.55093 1.8148342 56
11.993771 27.572662 1.8814766 4
12.087946 27.583342 1.8767693 3
12.631664 27.537718 1.8834907 2
12.831636 27.53124 1.8826202 16
-18.3505 27.644686 1.8177065 17
-0.69318771 27.606066 1.8975587 11
3.0023565 27.634827 1.855317 3
4.2858486 27.641436 1.8896352 35
4.3312569 27.625021 1.833455 30
4.4344749 27.68322 1.8563983 36.5
7.1485844 27.690321 1.8867886 25.5
7.2562356 27.650515 1.8497339 10
7.3665943 27.666595 1.8548018 9
7.460547 27.608223 1.8393086 18
7.5929222 27.69379 1.865069 7
7.6088343 27.692904 1.8853986 26.5
7.7294998 27.622009 1.8938429 12
-17.016764 27.784885 1.8858411 27
-15.344563 27.707722 1.8634534 16
0.87755203 27.728273 1.8950949 8
1.059824 27.707924 1.8744276 3
2.906147 27.779404 1.8297459 12
7.1553259 27.725151 1.8165997 18
7.2450991 27.743336 1.8335112 21.5
7.4893093 27.709375 1.880326 12
7.5324426 27.708714 1.8978949 29.5
7.7788653 27.709568 1.8775702 11
7.9997511 27.799667 1.8297979 14
8.0991268 27.758211 1.8739192 5
8.2280502 27.731483 1.8814614 13
8.3491888 27.786736 1.8948518 26.5
-17.127037 27.808886 1.8414955 32
4.4085956 27.888103 1.8966767 23
5.7479177 27.827055 1.8969231 2
7.7742386 27.830587 1.8579149 18
7.9625049 27.826725 1.8481473 14
8.0531807 27.81086 1.8235874 8
8.1597242 27.818573 1.8242973 3
8.2528801 27.86351 1.8212692 22
8.3383379 27.839539 1.825067 3
8.4150276 27.808582 1.8454667 26
9.6379356 27.872459 1.8155613 6
12.767751 27.842646 1.8932614 13
-15.57218 27.982771 1.8385 49
-0.018820763 27.949482 1.805136 25
3.7811737 27.999302 1.8095481 22
5.8146658 27.944233 1.8625233 16
-15.091317 28.068483 1.8868445 35
2.8573732 28.068584 1.8540729 8
-14.432899 28.178978 1.8330195 17
-13.999142 28.172691 1.8741006 14
-0.03342247 28.152092 1.8228586 14
3.7172847 28.145439 1.850866 52.25
4.2820034 28.187908 1.8103056 52
4.3654799 28.164551 1.8399532 30
4.424252 28.170109 1.8156087 4
9.6320457 28.113863 1.8750106 4
-13.560928 28.243921 1.8911196 37
-0.15366983 28.255354 1.8016521 4
2.8690701 28.282852 1.8358674 2
4.2609277 28.212732 1.8651716 9.5
9.6179008 28.240356 1.858259 6.5
-13.537684 28.341986 1.8321011 25
-0.055633545 28.350424 1.8090725 11
5.8633318 28.359835 1.8818868 13
9.4721766 28.320755 1.812674 3
9.5733624 28.358536 1.860572 15
5.6449146 28.40678 1.8876565 7
9.5445585 28.418358 1.8147219 2
12.644947 28.456665 1.895888 4
11.970656 28.58555 1.8599761 18
12.74242 28.578922 1.8248546 29
18.149986 28.579845 1.873131 19.5
-8.3031464 28.618477 1.8150636 5
9.4414625 28.671215 1.8280003 15
9.5347509 28.665352 1.8133614 2
11.823898 28.66507 1.8056704 44
11.946135 28.627737 1.8543864 36
12.105755 28.675995 1.8542315 29
12.436728 28.680054 1.8678578 74
12.677429 28.624609 1.8340318 28
18.128996 28.622919 1.8522847 23
18.208071 28.606209 1.8924747 5
11.99006 28.720478 1.8625109 37
12.29483 28.707783 1.8296769 23
12.33754 28.722824 1.8434546 50.5
12.402008 28.717411 1.8332849 58
12.59852 28.776529 1.8777201 22
19.73031 28.779121 1.8219224 14
-8.3170576 28.806366 1.8073466 6
5.6136284 28.823357 1.8711865 2
9.4932661 28.85183 1.8338798 13
9.5352621 28.898331 1.8298006 4
9.6759701 28.850285 1.8681446 3
12.035017 28.860649 1.8496729 20
18.165081 28.820097 1.8208469 39
20.28594 28.80476 1.8518997 9
20.769732 28.868517 1.8396641 25
20.929665 28.840082 1.8263355 5.5999999
-8.5072212 28.953829 1.8609006 24
2.7901077 28.900852 1.8662963 16
5.5886087 28.93862 1.8844252 2
9.532547 28.945076 1.8819373 2
20.971178 28.936413 1.8388191 4
-7.2635384 29.076094 1.8483957 15.666667
-7.2894225 29.12149 1.8363218 39
2.8499279 29.154783 1.8197899 6
2.7916832 29.231762 1.8531809 2
9.4644184 29.266369 1.8024001 4
11.854165 29.258024 1.8568891 23
11.907784 29.260468 1.8618011 4.5
12.456353 29.269964 1.8464906 36
12.466209 29.318983 1.8661819 9
17.84185 29.367336 1.8017187 33
18.019287 29.393822 1.8709103 23
-4.7422295 29.45278 1.8906074 28
9.3225956 29.479523 1.8147788 3
18.007769 29.41151 1.8856165 44
9.4461555 29.545681 1.8275297 3
9.387414 29.608063 1.8423116 4
17.652599 29.666565 1.855065 18
17.794998 29.646099 1.8712617 17
9.3965912 29.706793 1.8110056 4
9.4250154 29.758911 1.8487728 12.5
22.949104 29.74275 1.8396335 7
9.2717476 29.884514 1.8260416 3
17.386938 29.883389 1.8459675 19
-0.71963882 29.9212 1.8784641 11
-0.33127022 29.954796 1.894489 13
9.315897 29.903099 1.8362246 5
17.748816 29.949102 1.8632843 27
9.3690958 30.086391 1.8874148 11
17.654577 30.012859 1.8632833 35
1.1586657 30.156843 1.8863721 13
1.6651897 30.252956 1.8928643 14
24.040087 30.348726 1.8471907 16
9.3515654 30.447338 1.8963761 11
24.336451 30.579329 1.893352 17
9.2739 30.656139 1.8024251 3
9.3079605 30.692396 1.8405102 9
24.516338 30.795631 1.8698976 15
17.409267 31.470413 1.87824 20
17.361439 31.526096 1.8460617 15
12.421538 31.653419 1.8516954 19
17.584257 31.69659 1.8642713 7
17.600965 31.657 1.8511646 12
17.639866 31.744301 1.8789144 8
17.659586 31.856976 1.8356432 10
15.225277 31.976862 1.8536595 53
15.867249 32.068523 1.8340266 41
16.698547 32.166454 1.8117013 40
17.721905 32.211609 1.8299005 28
17.520939 32.34536 1.8386328 43
17.446035 32.403343 1.8899038 37
36.265121 33.145142 1.8042243 9
36.499378 33.421402 1.8655273 13
38.096893 35.329174 1.8000342 9
39.785313 37.366524 1.8875949 24
39.806587 37.436691 1.8284314 40.5
38.969212 38.62645 1.8407867 10
3.2397022 -29.8235 1.98804 12
15.852753 -25.019272 1.9949518 51
15.895202 -24.972294 1.9008039 35
15.822876 -24.719461 1.9560363 37
-2.626008 -24.15064 1.9070585 6
2.0132232 -22.798237 1.9797117 41
2.1083713 -22.796541 1.9505113 53
2.450418 -22.74649 1.9169146 52
10.363372 -21.815239 1.9138302 16
10.462139 -21.83427 1.9486587 20
10.283368 -21.748175 1.9896555 31
10.50001 -21.758253 1.929131 37
10.693826 -21.74452 1.9332658 29
10.890566 -21.624149 1.9996595 5
5.6467123 -21.55732 1.9617349 2
15.248696 -21.350697 1.9261754 38
5.4935536 -20.108343 1.9307351 2
5.4807024 -19.707012 1.9130006 2
-1.6872926 -19.369806 1.9932537 6
-1.7236924 -18.938797 1.9447339 7
-1.7899599 -18.715984 1.9279149 3
-24.266022 -17.933933 1.9468004 47.666668
14.835445 -17.725914 1.9782848 19
14.772089 -17.69693 1.9337718 14
14.820768 -17.684645 1.9504447 14
-18.990917 -17.290293 1.9533561 65
-18.017227 -17.162361 1.9182564 39
-17.994709 -17.153719 1.9412019 51
-18.976772 -16.918861 1.9320753 25
-18.75042 -16.95285 1.9418674 32.75
5.0449724 -16.983055 1.9844861 3
-18.217556 -16.814602 1.9460325 64.5
-18.070831 -16.846848 1.9785681 46
-11.066048 -16.108522 1.9797659 13
-10.598768 -16.136822 1.9415747 54.5
4.9953728 -16.108181 1.9331425 4
-9.7481384 -16.075575 1.9446402 61
-10.94083 -15.942408 1.969147 13
-10.377512 -15.949185 1.9347837 37.5
-9.9330559 -15.960846 1.9181179 34
-10.038541 -15.874741 1.9642738 51.333332
-9.8329067 -15.889395 1.9658295 43
-9.0789127 -15.858944 1.9351144 22
4.9030647 -15.70528 1.9636776 3
-2.187448 -15.541208 1.9575121 16
-1.3019295 -15.539402 1.967851 7
-4.0758195 -15.413175 1.9595121 21
-1.2691573 -15.453863 1.9423485 13.5
-4.5496254 -15.309492 1.9375274 35
-4.1295114 -15.326678 1.9675571 15.333333
-4.0987406 -15.387728 1.9899604 31
0.8927021 -15.20406 1.9158863 5
4.7929225 -15.234962 1.9688028 4
4.8284955 -15.232095 1.9375769 2
0.9139967 -15.061758 1.9454873 23
1.5760193 -15.027547 1.9654423 12.333333
4.8066707 -15.079761 1.9103123 2
-2.3033791 -14.955702 1.9864091 37
-2.2351782 -14.838273 1.9630251 31.666666
4.7766061 -14.858819 1.9034249 2
-24.711803 -14.787674 1.9437549 2
-2.2251751 -14.794672 1.916943 45
-2.1986022 -14.791803 1.9070992 40
-2.0155582 -14.798121 1.9490273 57
-1.4625177 -14.731258 1.9092157 27.5
-1.3841271 -14.792915 1.9507952 26
4.837503 -14.784759 1.9107449 2
-1.4357722 -14.673985 1.936216 32
0.8490082 -14.540859 1.9683874 24.5
1.193325 -14.57102 1.9662859 15
1.1910267 -14.497339 1.9117131 66
1.3835196 -14.460647 1.9286871 41
1.414052 -14.474288 1.9853878 46
4.7996368 -14.414932 1.9088129 2
9.2291689 -14.044991 1.9755187 22
9.2365227 -13.992676 1.9870051 3
9.1833611 -13.81045 1.9980013 2
9.2395372 -13.850268 1.9382212 12.5
4.5535278 -13.712926 1.9171302 2
9.0862293 -13.544069 1.9697911 3
9.1795654 -13.52421 1.9502993 8
9.210413 -13.574793 1.9264821 10
9.1877403 -13.447144 1.9216195 33
